ply
format ascii 1.0
element vertex 280
property float x
property float y
property float z
property uchar red
property uchar green
property uchar blue
end_header
-9.04797  4.99238  17.5401 255 255 255
-8.05157  10.7825  57.3512 255 255 255
4.25364 5.74239 17.8682 255 255 255
30.7125  9.3791 83.6433 255 255 255
7.71541 3.09005 21.7889 255 255 255
-7.92688  11.2554  54.9822 255 255 255
45.7295 11.5104 109.691 255 255 255
-6.90511  5.06493  18.4772 255 255 255
-8.20003  2.37032  35.5211 255 255 255
1.66545 4.67836 18.3996 255 255 255
-6.14581  8.19847   27.417 255 255 255
172.331 294.715 1602.36 255 255 255
-5.99903  19.6795  81.2806 255 255 255
-8.75534  3.60516  15.6905 255 255 255
-9.80591  1.75035   15.823 255 255 255
-7.56748  12.8815  75.2513 255 255 255
35.0333 9.03621 95.3124 255 255 255
-8.97069  6.16227  37.9359 255 255 255
-3.73995  22.0495  114.085 255 255 255
-9.31534  4.71236  28.4956 255 255 255
-9.53948 0.699461  19.3247 255 255 255
3.80141 7.23704 23.1638 255 255 255
19.1944 9.94651 107.931 255 255 255
-9.37929  5.35454  21.5407 255 255 255
-9.5245 5.83541  24.939 255 255 255
-6.17965  7.98771  37.2622 255 255 255
-1.21962  15.8285  64.5612 255 255 255
-6.71187  7.30887  35.6623 255 255 255
6.04681 5.70826 16.1068 255 255 255
-3.12479  14.3076  57.4414 255 255 255
-5.11578  19.5396  79.2753 255 255 255
-9.61163  5.25385  21.1748 255 255 255
-9.61866  1.42464  27.4653 255 255 255
-7.99813  6.45658  47.7013 255 255 255
-1.02124  31.1822  131.176 255 255 255
-7.07297  8.51512  43.9572 255 255 255
19.0885 15.8351 101.483 255 255 255
6.75076  68.787 276.115 255 255 255
8.91096 35.9768 153.799 255 255 255
-7.89688  12.7125  58.8724 255 255 255
2.57922 8.05309 29.1952 255 255 255
-8.37453  5.23407   35.792 255 255 255
-6.1189 6.65041 39.4745 255 255 255
-8.01924  7.42758   37.142 255 255 255
29.3332 6.89467 90.1055 255 255 255
36.7928 7.77772 89.9705 255 255 255
-6.78406  6.88338  36.6837 255 255 255
-9.53954  4.49719  21.2932 255 255 255
-8.46461   5.5079  47.1229 255 255 255
9.60739 50.4862 200.048 255 255 255
13.0193 13.3533 97.0695 255 255 255
29.0445 3.61429 59.0736 255 255 255
 -9.4036 0.560582  22.4275 255 255 255
-8.61106  3.42558  30.1199 255 255 255
-0.547324   23.5904   91.8064 255 255 255
-2.86776  19.3211  69.8322 255 255 255
 -7.201 10.2351 56.3828 255 255 255
3.60168 8.23314  30.357 255 255 255
 4.8383 5.48397 16.0275 255 255 255
-6.86526  6.31764  38.1154 255 255 255
-8.63721  5.81395  27.2801 255 255 255
-9.64042  4.20347  16.3662 255 255 255
-6.46064   7.8276  34.0772 255 255 255
-9.80113  3.02149  18.1391 255 255 255
-9.78999  3.21554  16.1213 255 255 255
-8.06488  2.39196  34.4444 255 255 255
1.31221 35.4011 164.237 255 255 255
-9.59488  1.61667  15.9304 255 255 255
-9.80852  4.17381  35.4873 255 255 255
34.2771 8.33028 99.1851 255 255 255
-9.84319  2.50437  16.2705 255 255 255
18.1047 12.4716 94.1156 255 255 255
3.96978 24.2599 107.003 255 255 255
-7.13071  14.0015  80.8652 255 255 255
-6.63313  3.72329  10.4895 255 255 255
-9.6711  2.2143 18.4553 255 255 255
-6.10131  7.38343  23.0679 255 255 255
-9.82166  1.85008  15.4339 255 255 255
-10.0508  1.31902  14.2368 255 255 255
5.34956 8.24068 29.4037 255 255 255
1.90438 5.73198 21.5485 255 255 255
4.52658 9.25591 34.1109 255 255 255
 -9.4129 0.924916  18.7092 255 255 255
-2.06669   16.706  62.8977 255 255 255
-9.13606  4.95397  15.8264 255 255 255
-8.96598  4.92693  16.8475 255 255 255
-7.76139  13.7694  57.3822 255 255 255
-9.11829  4.89799  17.2401 255 255 255
18.6098 9.16752 84.1718 255 255 255
4.33894 5.60143 15.7864 255 255 255
-9.44956 0.901171  23.3708 255 255 255
4.90512 4.93392 12.8284 255 255 255
-9.23148  5.90519  18.8495 255 255 255
15.6391 12.7098 86.7824 255 255 255
-8.4503 6.61772 28.4142 255 255 255
-2.98986  22.0555  87.3145 255 255 255
16.7805 12.5836 91.1063 255 255 255
-9.44078  1.65246  25.3561 255 255 255
41.7806 12.0666 119.032 255 255 255
-9.82319  3.05756  20.6829 255 255 255
-4.70805  14.8594   82.523 255 255 255
3.66168 5.85225 17.9647 255 255 255
4.93395 2.91049 6.34598 255 255 255
9.81083 58.9715  298.12 255 255 255
-8.01642  5.63599   26.326 255 255 255
34.1324 8.64899 95.1391 255 255 255
-8.33404  5.96804  28.3667 255 255 255
-9.54828 0.469723    19.71 255 255 255
4.23227  9.6218 37.6382 255 255 255
-8.71568  2.12799  28.5075 255 255 255
-6.51179  6.99466  20.9887 255 255 255
-6.33352  18.6211  76.0343 255 255 255
-9.95228  1.12868  14.1977 255 255 255
24.9013 4.73408 86.1133 255 255 255
20.0721 6.48065 61.8967 255 255 255
-4.88285  3.45072  12.5141 255 255 255
5.17977 5.07919 16.2821 255 255 255
17.1956 10.6899 89.4563 255 255 255
-5.78451  21.7248  112.906 255 255 255
-8.52803  2.43999  34.6391 255 255 255
-8.2552 8.19252 38.0444 255 255 255
4.80241 4.99563 13.1588 255 255 255
5.45279 8.10172 28.6592 255 255 255
 7.2172  5.6538 16.0576 255 255 255
-4.3893 18.1306 65.6891 255 255 255
28.0041 3.40946 53.1849 255 255 255
 4.7566 7.26679 23.8923 255 255 255
3.67029 5.77036 16.2963 255 255 255
9.07761 22.8645 95.1599 255 255 255
 -9.499 4.02736 16.2656 255 255 255
 15.751 11.7219 79.9102 255 255 255
-1.71645  17.1869   61.955 255 255 255
-9.74333  3.49662  24.0696 255 255 255
-2.96725  37.2517    187.5 255 255 255
 7.0755 5.85022 16.6324 255 255 255
-10.0172  2.82288  14.5204 255 255 255
-7.98659  8.05288  38.0935 255 255 255
-8.76805  8.42602  29.9617 255 255 255
16.8768  13.798 84.4515 255 255 255
4.58457 1.69138 6.52096 255 255 255
-6.04904  6.85049   26.847 255 255 255
5.32543 5.34981 16.2626 255 255 255
-7.18402  9.87312  64.2408 255 255 255
21.7251 3.99784 88.4867 255 255 255
-6.77813  13.1511  68.1846 255 255 255
-9.03847 0.683542  24.1922 255 255 255
-9.67179  1.43526  18.6145 255 255 255
3.42188 7.22334 24.0716 255 255 255
4.66554 7.52057 26.5543 255 255 255
-8.34102  6.91127  27.9312 255 255 255
-6.76682  6.14355  42.1855 255 255 255
-9.6396  3.0728 24.3491 255 255 255
20.0114 4.19517 31.5738 255 255 255
-9.60288   5.9529  29.1414 255 255 255
30.2067 9.29001 79.0044 255 255 255
-9.77268  5.66816  25.3229 255 255 255
-9.12317  1.91196  27.7702 255 255 255
 18.827 3.31986 85.3065 255 255 255
 29.753 1.27183 46.8988 255 255 255
-5.92102  5.98288  38.2095 255 255 255
-7.83751  5.47486  38.5923 255 255 255
-9.56216  2.15533  23.6522 255 255 255
-6.53187  13.9652   59.217 255 255 255
-7.71598  7.21689  27.8895 255 255 255
-7.02363   5.4294  44.7001 255 255 255
-7.25414  7.46538  38.3858 255 255 255
-7.14202  13.7882   76.077 255 255 255
-9.63583  8.40779  39.3844 255 255 255
-10.5799  2.50543  14.6281 255 255 255
-9.53609  1.33456  19.3239 255 255 255
-9.56416  4.60601   21.039 255 255 255
-11.3884  10.8398  88.8932 255 255 255
-9.14557  4.39419  21.0918 255 255 255
17.8085 5.23005 84.0861 255 255 255
-7.95857  7.37094  24.8091 255 255 255
17.3273 35.6139 186.669 255 255 255
-9.3108 5.01518 21.3545 255 255 255
31.1202 5.69842 66.1698 255 255 255
-5.33586  14.3627  61.0338 255 255 255
 8.1732 24.8237 121.991 255 255 255
-9.48172  1.52764  23.4112 255 255 255
17.1829 5.30511 86.1292 255 255 255
5.89694  5.3648 14.6579 255 255 255
7.55054 5.71325 16.2758 255 255 255
4.32414  5.2731 14.4646 255 255 255
-9.00851  5.82071  29.7215 255 255 255
27.6258 2.25383 50.3157 255 255 255
-9.63789   3.7139  24.3376 255 255 255
-7.73922  12.1178  81.9862 255 255 255
3.75253 4.28802 11.4375 255 255 255
28.0041 2.48559 52.3112 255 255 255
8.41229 5.94069 20.6067 255 255 255
30.5715 1.40396 49.8207 255 255 255
-66.4942  13.6064  292.377 255 255 255
-7.23272  6.86227  53.7556 255 255 255
-2.61494  32.6906  123.785 255 255 255
-8.99658  4.32886  16.6856 255 255 255
-9.55581   6.0008  24.2012 255 255 255
29.0861 5.15676 64.5116 255 255 255
3.79257 5.95673 18.7875 255 255 255
-9.3773 4.02706 18.7881 255 255 255
-6.74875  4.75493  17.3261 255 255 255
9.64057 36.6196  181.15 255 255 255
4.14119 4.76996 12.4882 255 255 255
-6.17554  7.24039  22.3192 255 255 255
-6.28484  6.18605  19.1771 255 255 255
3.95842  7.8118 26.8228 255 255 255
0.58457 18.1014 91.2305 255 255 255
 2.5822 6.08769 19.0765 255 255 255
29.4261 5.43855 64.8342 255 255 255
-8.88222  6.54621  26.3405 255 255 255
-9.09866  4.71572  14.3966 255 255 255
8.22935 47.7585 223.639 255 255 255
3.37936 5.79288 17.2337 255 255 255
-8.95007   4.4753  13.9165 255 255 255
-9.34243  4.70424  19.0543 255 255 255
33.9097 2.51666 53.0908 255 255 255
-6.29414  5.34789  15.3854 255 255 255
27.5361 5.91787 91.4429 255 255 255
-6.53016  4.23887   14.577 255 255 255
-10.199 15.0104 69.6349 255 255 255
-7.47594  7.31148  46.0147 255 255 255
-10.7766  4.67563  17.0554 255 255 255
5.00487 2.89872 6.33931 255 255 255
3.70003 4.70474 11.9484 255 255 255
-9.54701  4.31524  16.3355 255 255 255
-6.74341  6.64077  26.7998 255 255 255
-9.61428  5.07419  26.0038 255 255 255
32.5368   6.678 73.6615 255 255 255
30.4658 2.84361 54.4269 255 255 255
-8.80266   4.5703  22.5015 255 255 255
7.09175 21.4957 112.885 255 255 255
18.0996 3.45149 35.9526 255 255 255
-6.46742  6.92346  28.3039 255 255 255
-8.61153  5.85849  21.9491 255 255 255
8.03517 4.33463 20.3873 255 255 255
23.1599 5.51673 83.3954 255 255 255
-6.63675  4.00631  9.94362 255 255 255
-7.51338  6.95363  28.2752 255 255 255
-8.91518  4.55321  26.5704 255 255 255
-9.6719 3.36837 21.1974 255 255 255
-8.60579  4.97112   18.431 255 255 255
-10.1273  2.24534  18.7135 255 255 255
-6.26883  4.33031  11.4598 255 255 255
-8.00054  6.59622  30.7119 255 255 255
-6.58595  4.33503  10.4364 255 255 255
9.03872 5.22804 20.9879 255 255 255
-6.72013  5.68334  18.9416 255 255 255
30.4958 2.75488 109.715 255 255 255
3.55476 4.48922 11.0612 255 255 255
-13.1181  12.6778   52.216 255 255 255
-9.00085  4.16306   15.965 255 255 255
-6.42776  4.93072  17.3774 255 255 255
19.4145 4.32695 42.2091 255 255 255
-6.49767  4.14249  10.1723 255 255 255
32.6095 5.19168 68.2098 255 255 255
-9.60183  2.87944  22.8554 255 255 255
11.0396 4.06338 20.0469 255 255 255
-10.0091  1.94159  14.1935 255 255 255
-4.04237  10.5365  49.6018 255 255 255
6.41088 5.35948 16.7599 255 255 255
-8.76402  5.82856  25.0631 255 255 255
-9.36151  4.12792  24.0788 255 255 255
3.03179 5.18746 14.5788 255 255 255
-9.71549  2.34539  20.5195 255 255 255
7.33715 4.81307 18.2682 255 255 255
-6.17082  4.53544  33.3787 255 255 255
-9.42112  4.14573   16.468 255 255 255
-13.3438  6.77863  21.2408 255 255 255
 -9.4844 0.392646  22.0083 255 255 255
-9.87597  2.42509  25.3964 255 255 255
26.0932 3.84253  47.467 255 255 255
 4.3599 5.72182 18.4668 255 255 255
21.3559 4.70125 38.7857 255 255 255
-9.86226  2.13087  19.6202 255 255 255
-6.6898 3.67178 10.3049 255 255 255
-6.76527  5.34944  15.0336 255 255 255
3.11424 4.74866 12.7373 255 255 255
0 0 0 0 255 0
0.0744723  0.248916  0.965658 0 255 0
